ply
format ascii 1.0
element vertex 1222
property float x
property float y
property float z
property uchar red
property uchar green
property uchar blue
end_header
-0.559486 0.083267 5.921666 118 130 118
-0.557148 0.142974 5.859869 175 188 170
-0.553536 0.141857 5.861259 178 191 181
-0.554913 0.086030 5.921718 117 128 114
-0.457888 0.197348 5.642272 147 160 150
-0.547592 0.020574 5.979826 89 90 72
-0.446090 -0.221485 6.066710 74 85 71
-0.535735 0.079829 5.934554 122 132 121
-0.427979 0.196475 5.645106 140 151 134
-0.523390 0.094316 5.937030 109 123 110
-0.522018 0.100137 5.932634 175 191 178
-0.501501 0.170012 5.834639 173 189 179
-0.512346 0.121861 5.908423 106 120 94
-0.512346 0.121861 5.908423 106 120 94
-0.502281 0.133385 5.902238 169 184 165
-0.503265 0.074831 5.963360 158 172 159
-0.493921 0.053224 5.983514 91 103 103
-0.481091 0.162209 5.855076 137 145 122
-0.488017 0.092050 5.941412 116 127 111
-0.485311 0.137569 5.901287 115 125 98
-0.476362 0.094386 5.942672 166 180 167
-0.154552 0.091122 5.390858 173 190 184
-0.464069 0.077329 5.970399 111 125 108
-0.454822 0.129521 5.918210 102 109 101
-0.451999 0.096066 5.951026 134 145 128
-0.455663 0.079372 5.979179 150 165 146
-0.451170 0.107981 5.946065 173 187 170
-0.450109 0.137535 5.916090 116 126 115
-0.439043 0.134146 5.921852 116 122 120
-0.418115 0.178305 5.846604 143 155 143
-0.360751 0.197402 5.730249 142 151 134
-0.423162 0.160517 5.880018 139 151 129
-0.432952 0.155568 5.906982 184 198 181
-0.425020 0.074273 5.984993 154 170 159
-0.427615 0.087819 5.977931 153 165 145
-0.424658 0.104650 5.962867 127 138 132
-0.326093 -0.181702 6.100954 132 151 157
-0.406895 0.026824 6.026425 95 103 90
-0.406895 0.026824 6.026425 95 103 90
-0.412859 0.113265 5.951157 164 177 157
-0.408051 0.134278 5.924379 100 107 89
-0.349151 -0.143817 6.109997 136 155 159
-0.407315 0.076567 5.990000 111 121 94
-0.334647 -0.165968 6.116618 136 160 160
-0.390299 -0.044008 6.090141 128 146 148
-0.383013 0.182573 5.847978 143 151 138
-0.397275 0.093514 5.990457 103 115 95
-0.386293 0.081928 6.002498 125 135 111
-0.381748 0.076456 6.017992 100 114 101
-0.349409 -0.041743 6.086796 120 138 138
-0.313102 -0.117322 6.117489 83 95 81
-0.374613 0.085942 6.014364 181 194 174
-0.361871 0.115048 5.975986 167 181 168
-0.358569 0.048884 6.041795 94 105 91
-0.326331 0.188119 5.849895 138 150 130
-0.300620 -0.105787 6.114331 129 147 147
-0.351396 0.116065 5.987140 127 136 115
-0.351396 0.116065 5.987140 127 136 115
-0.337944 0.028078 6.057979 135 144 115
-0.340918 0.131043 5.968664 125 132 114
-0.340918 0.131043 5.968664 125 132 114
-0.254602 -0.176675 6.145053 72 80 69
-0.246055 -0.191710 6.150825 78 87 82
-0.186037 -0.281506 6.154360 133 157 159
-0.326189 0.038411 6.065512 142 149 116
-0.326961 0.143011 5.959070 170 182 162
-0.326961 0.143011 5.959070 170 182 162
-0.259289 -0.120571 6.152607 146 165 163
-0.309326 0.085174 6.039805 160 175 152
-0.291407 0.109520 6.005114 100 105 99
-0.284461 0.139002 5.973854 124 129 123
-0.222284 -0.142956 6.164922 75 80 60
-0.225108 -0.145932 6.176670 138 153 150
-0.281125 0.116581 5.997960 106 113 105
-0.281125 0.116581 5.997960 106 113 105
-0.155819 0.252408 5.660231 153 163 139
-0.256887 0.197268 5.885405 132 141 124
-0.256887 0.197268 5.885405 132 141 124
-0.158736 -0.244874 6.188527 84 99 92
-0.170410 -0.221779 6.185753 81 93 89
-0.170410 -0.221779 6.185753 81 93 89
-0.175182 -0.204051 6.179654 132 152 151
-0.268217 0.080818 6.047953 150 163 146
-0.265798 0.076761 6.053527 97 106 85
-0.265798 0.076761 6.053527 97 106 85
-0.159525 -0.222750 6.191212 90 103 96
-0.254309 0.154507 5.954522 115 125 114
-0.254966 0.146307 5.965925 111 119 106
-0.220475 -0.087825 6.163826 159 175 172
-0.258702 0.093870 6.043093 119 127 112
-0.258702 0.093870 6.043093 119 127 112
-0.144949 -0.232594 6.198707 130 146 143
-0.244336 0.164062 5.953574 107 117 109
-0.244840 0.120376 6.001475 127 135 114
-0.233634 -0.025729 6.137330 145 156 150
-0.206289 -0.101463 6.175114 92 103 95
-0.211786 -0.089918 6.172685 130 145 138
-0.251081 0.101092 6.039991 118 125 107
-0.139818 -0.210291 6.208612 90 103 96
-0.213986 0.186296 5.923331 182 194 170
-0.228035 0.061628 6.082311 152 165 145
-0.188539 -0.098230 6.192919 146 164 164
-0.207592 0.057457 6.099513 110 122 108
-0.156216 -0.139971 6.224909 137 157 156
-0.206281 0.076359 6.087496 97 103 99
-0.153330 -0.129153 6.234429 134 153 149
-0.194998 0.032633 6.139085 135 153 131
-0.136402 0.238648 5.832180 142 151 122
-0.194452 0.090574 6.086089 96 100 85
-0.046943 0.266938 5.681718 150 163 146
-0.107204 -0.196622 6.263520 134 152 152
-0.177485 0.008404 6.163030 93 105 101
-0.160255 -0.039259 6.199934 127 140 131
-0.086240 -0.215157 6.270607 82 92 84
-0.071549 -0.228197 6.276722 75 81 77
-0.167029 0.076165 6.108737 122 130 106
-0.161475 0.008844 6.182903 80 86 74
-0.160743 0.122624 6.072534 116 127 119
-0.132070 0.191508 5.963731 164 178 155
-0.151028 0.143260 6.065569 169 184 161
-0.122578 -0.062494 6.238649 90 93 74
-0.137844 0.132065 6.073586 103 111 100
-0.142302 0.103915 6.112622 172 184 170
-0.129115 0.137559 6.068719 166 182 172
0.099468 0.256862 5.586145 152 160 137
-0.138094 0.102280 6.124997 104 112 97
-0.138735 0.064192 6.168645 126 133 115
-0.140358 0.020680 6.218895 96 106 95
-0.108564 0.176788 6.007068 138 145 111
0.112649 0.258340 5.575156 141 153 133
-0.134210 0.012212 6.229843 155 168 150
-0.107729 0.158840 6.046233 102 110 89
-0.079333 -0.111866 6.291832 101 108 90
-0.079333 -0.111866 6.291832 101 108 90
-0.089036 -0.086149 6.297415 86 89 70
-0.092839 -0.053611 6.282314 129 145 144
-0.016409 0.257935 5.845813 165 174 143
-0.101460 0.131005 6.120217 174 186 176
-0.063380 -0.127474 6.340234 139 155 155
-0.116691 0.065128 6.220573 155 167 147
-0.059073 -0.108643 6.321994 84 92 77
-0.091783 0.162582 6.086909 138 146 125
-0.071205 -0.067789 6.316323 132 147 144
-0.105859 0.086365 6.211455 165 180 159
-0.082938 0.179402 6.082442 119 127 104
-0.088558 0.140475 6.136998 156 166 155
-0.099438 0.092604 6.211513 163 175 161
-0.084548 0.147910 6.135772 160 173 156
-0.062131 0.195696 6.054980 182 193 177
-0.093857 0.096116 6.210318 169 183 160
-0.092361 0.090746 6.214497 111 117 105
-0.036034 -0.125373 6.356853 128 141 132
-0.038414 -0.098809 6.339959 141 155 155
-0.038414 -0.098809 6.339959 141 155 155
-0.093079 0.078779 6.235371 154 163 144
-0.031493 -0.134847 6.367549 86 94 79
-0.077936 0.156635 6.134060 166 175 156
0.088022 0.274927 5.758624 142 153 123
-0.045914 -0.069033 6.331608 139 152 143
-0.065744 0.181303 6.099716 122 127 105
-0.034508 -0.092469 6.351995 96 104 93
-0.077596 0.112096 6.209740 168 180 166
-0.065830 0.002928 6.308512 87 96 77
-0.059378 0.162456 6.130949 156 167 153
-0.067857 0.153373 6.161312 142 144 107
-0.073390 0.088307 6.239430 146 156 132
-0.018248 -0.110268 6.369424 94 100 90
0.011524 0.263305 5.930653 155 164 143
-0.068874 0.113347 6.215685 175 188 170
-0.047168 0.194567 6.109678 130 138 115
-0.050486 0.084201 6.235197 82 86 69
-0.050486 0.084201 6.235197 82 86 69
-0.004198 -0.122113 6.387444 73 79 65
-0.042992 0.198216 6.107226 134 145 128
0.012639 -0.137632 6.402901 91 100 95
-0.029027 0.200482 6.107502 176 189 180
-0.030665 0.207353 6.103967 134 138 121
-0.030665 0.207353 6.103967 134 138 121
0.286927 0.230199 5.597915 140 152 128
-0.051642 0.115891 6.234182 134 147 129
-0.051642 0.115891 6.234182 134 147 129
-0.052555 0.143090 6.210033 130 140 116
-0.052555 0.143090 6.210033 130 140 116
-0.033323 0.183253 6.138567 178 190 180
-0.051199 0.154673 6.198567 130 139 122
-0.048408 0.132962 6.229390 143 153 142
0.055314 0.278614 5.921824 187 199 189
-0.036633 0.122765 6.241146 98 107 90
-0.028347 0.132663 6.238840 110 118 95
-0.033856 0.161046 6.217441 122 130 107
-0.033856 0.161046 6.217441 122 130 107
-0.025582 0.174705 6.197587 142 148 134
0.005380 -0.070943 6.413105 136 149 140
0.067255 0.269649 5.955711 135 140 117
0.138563 0.293873 5.830910 152 162 135
0.138563 0.293873 5.830910 152 162 135
0.064775 0.267559 5.971860 187 201 186
0.073687 0.274134 5.953733 141 147 121
-0.021418 0.126353 6.257108 105 113 90
-0.017310 0.123417 6.258846 161 169 146
-0.017310 0.123417 6.258846 161 169 146
0.017002 0.232160 6.095524 174 185 177
0.000732 -0.024727 6.394998 142 152 141
0.006450 -0.022182 6.394193 106 105 84
0.014835 0.219598 6.133091 128 133 101
0.013567 -0.015481 6.404553 129 142 135
0.011981 0.209601 6.177143 174 186 174
0.013846 0.199733 6.184813 170 182 168
0.057573 -0.125203 6.477115 96 112 102
0.052713 0.255051 6.083506 174 187 177
0.086962 0.279441 6.018655 146 156 131
0.048719 -0.076321 6.473658 90 100 91
0.059391 -0.100692 6.485345 134 145 137
0.050930 -0.074451 6.481389 139 145 141
0.043464 0.239062 6.162674 178 192 179
0.066312 0.257017 6.113329 113 120 87
0.083358 0.273475 6.071571 168 181 172
0.071712 -0.108119 6.505469 126 143 137
0.044551 0.225701 6.187089 153 165 145
0.034823 0.191097 6.239377 174 186 172
0.061736 0.250116 6.145332 144 158 133
0.073760 -0.097346 6.518261 132 145 136
0.094282 -0.102807 6.505552 108 115 108
0.156373 0.284745 5.993771 142 151 122
0.017183 0.156263 6.349160 147 159 145
0.029272 0.184317 6.308484 166 181 160
0.101879 -0.125505 6.539228 137 158 153
0.024085 0.163163 6.347258 156 170 153
0.159369 0.285297 6.020435 159 168 137
0.074964 -0.046659 6.513856 96 99 88
0.118188 -0.140504 6.552734 90 105 100
0.038725 0.202092 6.313410 126 136 112
0.038725 0.202092 6.313410 126 136 112
0.080404 -0.045166 6.525957 133 145 141
0.149010 0.276910 6.087251 154 167 137
0.085846 -0.024873 6.530467 89 96 80
0.159160 -0.169502 6.591715 87 103 100
0.215197 0.297695 6.023067 157 169 147
0.063577 0.169949 6.382659 109 111 87
0.080162 0.015187 6.531219 133 150 142
0.080668 0.030986 6.530873 131 142 138
0.102298 -0.016866 6.557996 99 107 94
0.084075 0.035341 6.532586 101 105 78
0.130022 -0.079114 6.593174 137 156 154
0.095320 0.016870 6.547477 101 109 94
0.111624 -0.029284 6.590666 91 96 89
0.178788 -0.139644 6.625619 135 160 157
0.178788 -0.139644 6.625619 135 160 157
0.086442 0.195694 6.400228 121 129 105
0.088269 0.163444 6.441066 113 121 98
0.091532 0.192260 6.405529 167 179 169
0.113909 0.256582 6.304563 134 142 118
0.096616 0.194759 6.410027 106 108 86
0.134220 0.284191 6.263629 142 151 122
0.115491 0.005928 6.592963 152 164 162
0.103389 0.237621 6.366233 165 177 157
0.119059 -0.000694 6.604290 98 102 101
0.133706 -0.026246 6.620436 135 150 147
0.133706 -0.026246 6.620436 135 150 147
0.145135 0.291064 6.261025 140 150 126
0.128918 -0.004067 6.611057 84 84 74
0.123386 0.240488 6.378023 175 183 170
0.122680 0.236180 6.399522 181 190 171
0.117958 0.072342 6.585299 176 186 162
0.138985 0.280253 6.331595 172 186 169
0.181974 0.310831 6.244300 190 201 193
0.191184 -0.087657 6.666408 127 144 138
0.229038 -0.153714 6.689806 80 89 86
0.229038 -0.153714 6.689806 80 89 86
0.145586 0.284279 6.332432 121 124 103
0.176314 -0.052484 6.659863 137 156 154
0.114023 0.146506 6.535557 125 134 115
0.867080 0.133716 5.521286 10 24 121
0.135225 0.238697 6.412857 175 189 174
0.135225 0.238697 6.412857 175 189 174
0.141747 0.246478 6.400333 134 138 113
0.121795 0.114465 6.581263 99 107 96
0.171824 0.298204 6.322602 160 172 148
0.133756 0.228338 6.463779 128 132 105
0.156129 0.030990 6.650258 101 103 90
0.127643 0.185363 6.523992 155 167 143
0.125129 0.185543 6.528081 160 174 151
0.175760 -0.016421 6.682910 135 151 150
0.205490 0.326371 6.267424 156 164 140
0.225840 0.328333 6.238560 157 166 139
0.151987 0.258932 6.422661 175 188 170
0.197001 -0.052986 6.703349 97 106 103
0.172478 -0.008393 6.698611 134 149 142
0.132102 0.199644 6.532268 165 178 150
0.206795 0.312264 6.307585 142 154 134
0.166641 0.027568 6.675944 92 95 76
0.153632 0.058201 6.661869 165 177 177
0.153632 0.058201 6.661869 165 177 177
0.159990 0.268578 6.429832 180 193 173
0.160743 0.051850 6.669825 97 107 99
0.138467 0.210869 6.532598 178 188 164
0.177427 0.024419 6.689724 93 95 81
0.153785 0.251260 6.473961 120 128 107
0.181638 0.016222 6.694056 129 145 144
0.182618 0.298552 6.397493 151 159 135
0.175940 0.296625 6.415774 183 197 182
0.152028 0.227510 6.540454 164 177 160
0.175643 0.272937 6.457755 177 191 174
0.303888 0.354371 6.193391 160 169 148
0.347043 0.353915 6.139366 142 147 125
0.158729 0.198874 6.583601 124 136 116
0.161013 0.196706 6.588207 167 184 165
0.191056 0.037568 6.729420 125 142 136
0.166129 0.231507 6.555223 165 177 165
0.170731 0.139407 6.655950 113 124 118
0.177362 0.226185 6.583914 165 179 154
0.180561 0.212952 6.603219 91 96 89
0.228360 0.333024 6.410628 137 148 134
0.195671 0.294083 6.500964 140 152 130
0.233219 0.348623 6.397316 143 153 128
0.283060 -0.078550 6.800778 72 77 83
0.268232 -0.052587 6.795098 126 143 153
0.189211 0.225071 6.598389 157 169 157
0.189792 0.272181 6.551515 174 187 170
0.459810 -0.263569 6.793879 135 154 160
0.240719 0.008756 6.784720 130 149 147
0.200634 0.238007 6.593937 105 116 100
0.198499 0.268015 6.568155 106 108 95
0.873444 0.288441 5.639805 155 172 162
0.313988 -0.097113 6.819388 106 120 121
0.202801 0.252553 6.583085 116 123 105
0.202801 0.252553 6.583085 116 123 105
0.201470 0.259049 6.576568 174 188 171
0.299035 -0.055727 6.811079 68 77 76
0.220900 0.310798 6.510851 181 195 182
0.248276 0.350647 6.432008 143 151 130
0.248276 0.350647 6.432008 143 151 130
0.204706 0.253233 6.599814 115 121 109
0.210565 0.282877 6.563714 111 116 112
0.481361 0.376994 6.104592 155 165 141
0.273249 0.373997 6.386822 190 205 198
0.337790 -0.104702 6.830902 116 134 134
0.301712 -0.044166 6.814543 70 78 80
0.275076 -0.001126 6.808342 62 67 63
0.251212 0.340604 6.464754 126 133 117
0.224567 0.266725 6.587544 115 127 107
0.371962 -0.134541 6.841546 117 133 133
0.315946 -0.048842 6.823919 111 129 131
0.216503 0.312332 6.560484 119 122 111
0.216503 0.312332 6.560484 119 122 111
0.275134 0.019927 6.813105 123 139 136
0.798772 0.338258 5.763720 156 174 162
0.798772 0.338258 5.763720 156 174 162
0.245712 0.321328 6.522204 127 136 119
0.283097 0.366890 6.424997 156 165 138
0.242966 0.329587 6.522218 142 154 134
0.219926 0.235995 6.658175 124 132 119
0.306955 -0.014633 6.821861 130 148 148
0.223365 0.273487 6.616260 128 139 125
0.269598 0.054040 6.805443 100 102 89
0.278866 0.040525 6.808731 128 142 143
0.277843 0.349362 6.466172 151 163 139
0.360348 -0.088242 6.849649 79 85 85
0.230661 0.298730 6.597170 137 150 130
0.237211 0.299769 6.594521 141 152 135
0.306977 0.005460 6.832223 65 70 64
0.323522 -0.011246 6.840262 130 146 146
0.239875 0.213526 6.719769 87 93 91
0.239875 0.213526 6.719769 87 93 91
0.371814 -0.074288 6.866951 130 148 152
0.329019 0.003949 6.855319 133 153 154
0.249209 0.251301 6.685959 168 182 169
0.249209 0.251301 6.685959 168 182 169
0.273471 0.361499 6.537530 137 146 125
0.325674 0.406145 6.419603 140 149 130
0.251821 0.276304 6.670680 162 179 161
0.247931 0.274199 6.679602 102 112 104
0.420098 -0.111200 6.887270 130 149 147
0.256753 0.299819 6.656647 117 127 119
0.254376 0.291816 6.669798 122 133 119
0.323081 0.041367 6.861029 123 137 137
0.251311 0.263283 6.711940 86 91 85
0.263037 0.300882 6.659514 175 189 176
0.305694 0.397511 6.498570 178 190 176
0.379615 -0.022762 6.885312 82 87 91
0.318912 0.070385 6.862062 121 137 136
0.275119 0.275506 6.700502 90 95 89
0.284339 0.357390 6.605478 147 159 147
0.406502 -0.037363 6.894310 130 150 149
0.285038 0.339540 6.641238 178 190 178
0.303535 0.383174 6.571886 148 157 136
0.334346 0.085937 6.874342 82 85 74
0.328716 0.415465 6.526165 135 145 121
0.333430 0.423702 6.524035 145 154 135
0.297414 0.270059 6.746829 105 113 102
0.297414 0.270059 6.746829 105 113 102
0.311291 0.331311 6.675185 126 134 123
0.359991 0.447412 6.491638 150 159 140
0.345684 0.432270 6.527433 193 207 190
0.352032 0.428938 6.528740 146 159 142
0.352032 0.428938 6.528740 146 159 142
0.318964 0.369069 6.638889 125 137 117
0.410686 0.499239 6.377219 155 166 150
0.315284 0.233687 6.805985 167 180 173
0.426838 0.503061 6.366525 150 161 144
0.324991 0.386214 6.638471 119 127 112
0.324489 0.240801 6.803193 171 188 172
0.318342 0.304762 6.740566 106 116 108
0.370548 0.462963 6.510638 186 198 186
0.350489 0.416461 6.618143 182 196 181
0.339980 0.405600 6.644461 143 153 142
0.350819 0.425382 6.614381 119 130 114
0.350819 0.425382 6.614381 119 130 114
0.342702 0.381861 6.681935 142 151 134
0.394541 0.485292 6.501126 135 147 125
0.370040 0.452493 6.578585 148 160 140
0.343253 0.349476 6.731528 167 180 162
0.359204 0.399429 6.669412 149 159 150
0.354080 0.381386 6.701802 119 130 113
0.458640 0.537694 6.395470 150 159 142
0.446321 0.531391 6.429474 142 150 137
0.370284 0.429868 6.653166 180 193 175
0.364523 0.352940 6.756193 162 177 158
0.366735 0.319346 6.798566 170 185 178
0.432429 0.508964 6.502667 125 136 122
0.371752 0.341722 6.769568 115 127 117
0.389437 0.445155 6.638584 188 201 194
0.398699 0.247206 6.858462 100 112 110
0.384377 0.412071 6.693456 181 197 187
0.379958 0.371204 6.750307 168 182 165
0.393132 0.438736 6.662410 146 162 152
0.387021 0.409232 6.713692 177 190 181
0.387021 0.409232 6.713692 177 190 181
0.387611 0.419197 6.707020 109 117 106
0.393346 0.371992 6.760695 119 134 127
0.393346 0.371992 6.760695 119 134 127
0.418798 0.451453 6.666883 137 148 132
0.416173 0.438475 6.686169 123 134 126
0.435734 0.489071 6.608210 131 144 134
0.438813 0.477314 6.631507 172 185 176
0.420461 0.349380 6.798129 175 191 181
0.432520 0.457414 6.662405 146 156 145
0.443089 0.471627 6.636248 127 134 126
0.494728 0.031663 7.096196 9 24 125
0.420122 0.380720 6.778032 128 140 126
0.437931 0.293246 6.856547 108 118 110
0.423327 0.357434 6.803837 121 136 129
0.454341 0.489718 6.623240 127 139 119
0.454341 0.489718 6.623240 127 139 119
0.444247 0.433006 6.725315 120 132 122
0.461528 0.470640 6.667707 174 190 180
0.449927 0.368544 6.810672 128 143 138
0.449927 0.368544 6.810672 128 143 138
0.448107 0.380425 6.800134 139 149 125
0.462616 0.313691 6.860398 97 108 110
0.461908 0.368199 6.812977 168 184 173
0.810948 0.571768 6.171030 170 187 177
0.517558 0.533943 6.603298 133 146 139
0.548130 0.559654 6.552528 143 155 143
0.605420 0.602832 6.436011 143 156 146
0.514280 0.508832 6.660426 123 136 127
0.517129 0.441975 6.743457 131 143 139
0.531667 0.325255 6.890956 112 112 112
0.513658 0.413935 6.811776 109 124 119
0.536835 0.470985 6.719791 128 140 140
0.537602 0.386128 6.822676 112 126 127
0.541928 0.347208 6.864765 123 135 131
0.541928 0.347208 6.864765 123 135 131
0.703974 0.633710 6.345589 141 154 147
0.571566 0.558235 6.597687 137 150 140
0.597711 0.533821 6.638272 147 158 150
0.574080 0.376388 6.849985 144 152 137
0.609586 0.412726 6.816943 137 145 130
0.805729 0.612267 6.386049 14 32 118
0.743901 0.603561 6.459988 182 195 185
0.670977 0.556795 6.618508 146 161 158
0.694499 0.473476 6.744217 136 146 137
0.771696 0.559781 6.577011 169 182 175
0.775309 0.535240 6.618907 160 177 171
0.603028 0.392849 6.983579 169 180 164
0.636861 0.375866 7.004794 141 161 162
0.657504 0.420815 6.982687 146 164 168
0.652212 0.456062 6.965519 140 157 164
0.708973 0.512120 6.883383 165 181 181
0.054207 0.007331 5.617838 152 163 147
-0.880766 -0.133572 5.528233 94 98 84
-0.752667 0.006018 5.728259 110 116 82
-0.626056 0.144508 5.634993 138 144 118
-0.602874 0.131380 5.785381 171 184 174
-0.516449 -0.158979 6.049158 90 94 80
-0.266936 -0.123716 6.140646 137 156 162
-0.278595 0.114924 5.996669 106 113 105
-0.231064 0.172330 5.944553 106 115 98
-0.131831 0.238424 5.772266 153 164 148
-0.153672 -0.037729 6.207154 88 92 78
-0.138094 -0.060560 6.232975 132 144 134
-0.164160 0.098548 6.094045 129 140 123
-0.085763 0.188637 6.047191 119 123 96
-0.050525 -0.054009 6.323649 85 88 67
-0.087525 0.150446 6.122366 104 103 82
-0.020510 -0.108167 6.370831 94 100 90
-0.016359 0.253341 5.848465 152 161 130
-0.079920 0.144679 6.133354 160 173 156
-0.011050 0.244072 5.917807 135 138 119
-0.011050 0.244072 5.917807 135 138 119
0.086730 0.276333 5.759912 142 153 123
0.017257 -0.077155 6.429068 146 159 150
0.024565 0.254427 5.975201 139 147 124
-0.004742 0.219920 6.095782 124 132 109
0.008248 -0.016998 6.408676 89 93 76
0.024600 -0.025661 6.427699 142 151 132
0.066625 -0.096965 6.499780 143 158 155
0.080026 0.015649 6.531566 133 150 142
0.091981 0.253563 6.248608 188 200 186
0.091981 0.253563 6.248608 188 200 186
0.162245 -0.090151 6.638469 79 84 80
0.162245 -0.090151 6.638469 79 84 80
0.121140 0.222366 6.412079 123 132 115
0.172625 0.313106 6.232158 131 144 127
0.156257 0.219570 6.557521 124 132 117
0.156257 0.219570 6.557521 124 132 117
0.161213 0.203293 6.593813 95 103 88
0.216617 0.329081 6.394044 147 156 135
0.203056 0.310900 6.451115 140 149 128
0.195459 0.294023 6.500909 140 152 130
0.224277 0.336641 6.393045 144 155 139
0.300780 0.316065 6.682398 124 132 119
0.420600 0.508946 6.388585 142 154 130
0.355856 0.423317 6.636391 147 158 142
0.365287 0.426081 6.653982 174 189 170
0.388273 0.434553 6.667903 186 201 194
0.448559 0.530187 6.428572 142 150 137
0.409158 0.438961 6.683955 182 194 182
0.425560 0.472909 6.631783 135 145 136
0.429908 0.471415 6.641679 113 125 115
0.440288 0.476827 6.631228 172 185 176
0.517241 0.535882 6.598519 172 185 178
0.561517 0.313009 6.975381 147 158 154
-0.846815 -0.305992 5.437167 96 101 94
-0.816322 -0.550842 5.605673 123 139 136
-0.926313 0.023579 5.437028 119 124 104
-0.930970 0.022198 5.445340 179 194 187
-0.855327 -0.060275 5.583676 106 115 96
-0.882606 -0.154333 5.706270 98 101 82
-0.775632 -0.396399 5.735726 153 168 149
-0.834307 -0.054790 5.704010 104 105 87
-0.843483 -0.080027 5.748874 112 116 91
-0.848258 -0.123192 5.790986 130 129 98
-0.802998 0.027991 5.642880 161 174 154
-0.782843 0.077438 5.594576 121 120 92
-0.789794 0.037784 5.653355 109 108 77
-0.742928 0.125554 5.546514 172 188 177
-0.631489 -0.542437 5.868704 123 142 148
-0.759517 0.091546 5.615200 128 132 107
-0.769534 0.015715 5.704852 109 117 94
-0.767769 0.018992 5.704146 125 133 109
-0.803285 -0.120405 5.867613 108 111 84
-0.765792 -0.037584 5.766529 97 99 77
-0.792231 -0.150649 5.915040 102 106 91
-0.741757 0.003548 5.756972 119 127 106
-0.758256 -0.170030 5.950482 115 116 85
-0.706029 0.095324 5.676036 161 174 154
-0.713288 0.015283 5.770284 134 138 115
-0.704169 0.062887 5.733980 115 119 84
-0.704169 0.062887 5.733980 115 119 84
-0.671802 0.089359 5.733551 110 115 93
-0.680413 0.062389 5.770985 137 137 101
-0.671863 0.062698 5.782854 136 139 118
-0.686360 0.040115 5.825630 161 174 164
-0.677404 0.057540 5.814448 186 200 185
-0.670010 0.069954 5.804022 134 134 108
-0.619778 0.145757 5.718581 178 188 164
-0.619778 0.145757 5.718581 178 188 164
-0.617771 0.135514 5.727986 126 131 111
-0.617771 0.135514 5.727986 126 131 111
-0.611683 0.150358 5.713446 123 133 109
-0.618380 0.109386 5.764971 178 189 175
-0.636663 0.102754 5.802555 125 127 103
-0.640523 0.070049 5.857453 174 185 168
-0.606851 0.135949 5.780179 181 194 168
-0.632214 0.078360 5.867325 170 185 166
-0.611069 0.098806 5.839185 176 187 171
-0.616313 0.067469 5.873778 139 150 133
-0.580622 0.124257 5.810477 127 136 105
-0.605631 0.114193 5.862271 172 188 178
-0.574360 0.149032 5.800271 136 143 110
-0.574360 0.149032 5.800271 136 143 110
-0.596093 0.031877 5.932588 119 123 90
-0.242271 0.148594 5.328201 19 31 89
-0.589449 0.070494 5.909998 170 184 169
-0.532824 -0.211085 6.055500 128 144 143
-0.512688 0.171387 5.758906 187 200 193
-0.555062 0.070457 5.929779 100 110 101
-0.557408 0.079905 5.928135 167 177 166
-0.546517 0.086271 5.928228 180 194 181
-0.537548 0.108011 5.915012 166 178 166
-0.537548 0.108011 5.915012 166 178 166
-0.505691 0.182499 5.823027 182 194 174
-0.471204 0.192895 5.767918 146 151 121
-0.462922 0.195048 5.766753 186 201 194
-0.462922 0.195048 5.766753 186 201 194
-0.103355 -0.235263 5.551417 109 121 109
-0.103355 -0.235263 5.551417 109 121 109
-0.516341 0.107608 5.925191 173 184 178
-0.503532 0.141984 5.888510 128 136 121
-0.503532 0.141984 5.888510 128 136 121
-0.473287 0.176566 5.820715 121 130 109
-0.473287 0.176566 5.820715 121 130 109
-0.507059 0.089813 5.944077 121 129 108
-0.501894 0.082320 5.959676 114 125 109
-0.491866 0.038095 5.982132 94 90 65
-0.464849 0.181456 5.836551 173 186 158
-0.486673 0.105479 5.933436 128 139 122
-0.483501 0.064556 5.971401 156 168 148
-0.464431 0.132378 5.907382 182 194 184
-0.470252 0.110252 5.934863 161 173 161
-0.410188 0.188676 5.792949 152 161 140
-0.461685 0.091244 5.952189 122 133 117
-0.457636 0.128835 5.921879 141 147 133
-0.388255 -0.190337 6.088698 100 113 96
-0.446268 0.090740 5.968467 121 132 115
-0.322441 -0.279737 6.090072 95 113 115
-0.412181 0.163373 5.878018 146 159 142
-0.412181 0.163373 5.878018 146 159 142
-0.417465 0.125123 5.927114 116 123 105
-0.395520 0.174065 5.860613 138 146 123
-0.412749 0.112050 5.957707 119 125 113
-0.401176 0.131034 5.927850 164 178 163
-0.411925 0.037157 6.016920 150 158 135
-0.397845 0.146155 5.915443 122 127 105
-0.412692 0.095210 5.975731 172 184 170
-0.409155 0.077876 5.990965 110 120 95
-0.367579 0.178720 5.856077 150 161 145
-0.367579 0.178720 5.856077 150 161 145
-0.403126 0.020001 6.031713 84 84 60
-0.383600 0.145042 5.912291 172 185 168
-0.328126 -0.156749 6.116821 87 102 83
-0.374406 -0.016788 6.077186 140 151 147
-0.352352 0.145027 5.926357 171 185 170
-0.352352 0.145027 5.926357 171 185 170
-0.277296 0.214439 5.767279 134 142 121
-0.294010 -0.218107 6.132364 92 104 100
-0.365760 0.067584 6.023007 96 103 95
-0.301158 -0.131170 6.114875 94 107 97
-0.151739 0.249342 5.657381 152 164 140
-0.318837 0.124195 5.988985 129 136 103
-0.320915 0.033797 6.067105 158 169 152
-0.195537 -0.289185 6.152416 91 110 108
-0.195537 -0.289185 6.152416 91 110 108
-0.314954 0.077638 6.044696 152 161 144
-0.304005 0.030164 6.079006 148 156 143
-0.269909 -0.110878 6.142169 98 103 81
-0.268277 -0.115124 6.146871 99 107 92
-0.142276 -0.341471 6.150962 149 167 167
-0.169063 -0.301986 6.160280 144 165 160
-0.294232 0.085403 6.036313 112 112 86
-0.294232 0.085403 6.036313 112 112 86
-0.282798 0.100065 6.009376 111 115 100
-0.132760 -0.349356 6.161529 97 112 107
-0.279269 0.105062 6.008328 112 123 107
-0.155113 -0.296583 6.162316 98 111 104
-0.155113 -0.296583 6.162316 98 111 104
-0.268773 0.140427 5.977318 137 144 111
-0.288373 0.049182 6.076996 121 128 110
-0.116837 0.254739 5.691150 143 152 131
-0.275480 0.020564 6.092932 128 138 127
-0.281312 0.049663 6.079361 154 168 145
-0.276930 0.030039 6.090097 70 80 69
-0.265658 0.093598 6.042075 156 169 151
-0.268501 0.028163 6.098935 139 151 127
-0.268501 0.028163 6.098935 139 151 127
-0.270139 0.038124 6.095885 82 94 84
-0.202587 -0.174074 6.183408 140 160 159
-0.253404 0.020896 6.104999 85 95 87
-0.251772 0.043921 6.090482 93 103 92
-0.249436 0.077538 6.065178 104 109 89
-0.189236 -0.178975 6.185843 83 94 80
-0.200223 0.203912 5.900155 147 155 131
-0.206605 0.184460 5.924670 133 142 123
-0.206605 0.184460 5.924670 133 142 123
-0.175191 -0.196583 6.187689 79 88 83
-0.169422 -0.205983 6.189314 85 100 93
-0.243901 0.066672 6.080922 106 115 94
-0.240407 0.046651 6.094963 155 169 156
-0.152140 -0.216173 6.187926 136 152 149
-0.152140 -0.216173 6.187926 136 152 149
-0.187651 -0.135922 6.180088 100 111 105
-0.178944 0.195126 5.924784 174 187 170
-0.226701 0.105181 6.063506 149 161 147
-0.022196 0.262146 5.675137 136 145 126
-0.107051 -0.281870 6.219781 78 91 84
-0.208374 0.049754 6.111312 108 117 96
-0.205253 0.054492 6.105573 159 170 154
-0.205253 0.054492 6.105573 159 170 154
-0.200599 0.062334 6.107322 163 176 166
-0.193365 0.089763 6.085495 95 104 87
-0.058830 -0.313185 6.231379 106 125 119
-0.058830 -0.313185 6.231379 106 125 119
-0.183571 0.127371 6.051470 150 162 152
-0.171560 -0.101886 6.215997 141 156 149
-0.157367 0.176980 5.980071 174 184 160
-0.169875 0.153522 6.015580 133 139 111
-0.169875 0.153522 6.015580 133 139 111
0.060520 0.258832 5.642051 145 154 127
-0.184688 0.017577 6.158406 166 178 158
-0.139604 -0.137348 6.239476 79 87 74
-0.169344 0.077759 6.109883 131 139 116
-0.080795 0.251279 5.858517 124 131 115
-0.159030 0.081330 6.106668 131 136 113
-0.166228 0.053689 6.154790 119 126 118
-0.052889 0.255858 5.845891 146 157 140
-0.086160 -0.214720 6.271044 88 94 80
-0.141928 0.133241 6.069363 165 176 168
-0.141928 0.133241 6.069363 165 176 168
-0.154613 0.084612 6.126315 110 118 95
-0.136863 0.158934 6.050217 128 136 115
-0.136863 0.158934 6.050217 128 136 115
-0.137995 0.122931 6.084605 131 142 126
-0.070960 -0.228313 6.276783 82 94 84
-0.115504 0.182232 6.011477 137 144 111
-0.098049 0.197607 5.977696 177 192 171
-0.143978 0.095992 6.125762 99 107 92
-0.103563 0.191712 5.998978 136 138 98
-0.103563 0.191712 5.998978 136 138 98
-0.142670 0.089463 6.135251 122 127 107
-0.142670 0.089463 6.135251 122 127 107
-0.057751 -0.219244 6.283805 136 156 155
-0.042657 0.233524 5.923692 137 142 112
-0.042657 0.233524 5.923692 137 142 112
-0.111652 0.124235 6.110714 107 113 87
-0.112138 0.137205 6.105715 162 177 156
-0.113503 0.115580 6.124115 176 191 172
-0.078541 -0.129837 6.289949 145 157 155
-0.126234 0.108990 6.175127 166 178 168
0.123511 0.273908 5.721414 134 140 114
-0.044650 -0.200795 6.324990 85 96 92
-0.043546 -0.178088 6.322571 83 91 78
-0.043096 -0.169726 6.318875 130 148 152
-0.092921 -0.028096 6.269588 126 139 132
-0.084523 0.148107 6.120562 100 106 80
-0.089516 -0.021992 6.269507 96 108 88
-0.080872 0.149604 6.130361 118 120 106
-0.074354 0.143168 6.134513 116 115 94
-0.089269 0.124208 6.169379 104 108 94
-0.034498 -0.174400 6.340095 141 159 161
-0.099207 0.066765 6.231592 164 177 160
-0.099207 0.066765 6.231592 164 177 160
-0.072351 0.164897 6.118636 112 115 94
-0.062126 -0.120193 6.333329 85 96 88
-0.075567 0.151138 6.136275 115 117 95
-0.070480 0.158007 6.127587 117 120 99
-0.087753 0.107606 6.193288 136 140 113
-0.091810 0.100672 6.205759 112 123 93
-0.069406 -0.060517 6.306275 94 94 70
-0.026865 0.220687 6.034895 124 132 108
-0.091216 0.074185 6.238783 165 173 150
-0.082547 0.041313 6.261140 106 110 85
-0.072349 0.130224 6.181986 123 128 106
-0.080935 0.038363 6.267020 153 162 143
0.140233 0.288158 5.788257 154 160 116
-0.028515 -0.154250 6.359690 94 105 88
-0.075013 0.100885 6.226133 118 127 110
-0.066991 0.085653 6.229471 142 149 131
-0.072625 0.107505 6.228283 121 132 116
-0.072625 0.107505 6.228283 121 132 116
-0.062846 0.005417 6.302293 133 145 131
-0.067220 0.111735 6.227616 129 137 126
0.018672 0.250101 6.014569 127 131 104
0.018672 0.250101 6.014569 127 131 104
-0.068279 0.123209 6.239392 105 109 95
0.114614 0.299967 5.870584 152 163 155
0.114614 0.299967 5.870584 152 163 155
-0.029621 -0.067045 6.353445 140 155 148
-0.014864 -0.108273 6.367651 113 120 102
0.003299 -0.164485 6.390263 137 153 152
0.095110 0.289573 5.914917 134 140 112
-0.002215 -0.133198 6.394301 130 144 144
-0.032231 0.164711 6.195737 128 139 123
-0.040535 0.140555 6.225907 149 160 143
-0.019929 -0.074754 6.383758 91 94 67
0.087849 0.276670 5.974016 124 133 114
0.083546 0.280266 5.979208 139 144 121
-0.022704 0.141841 6.227832 88 93 71
-0.022704 0.141841 6.227832 88 93 71
0.036741 0.252164 6.080476 186 202 192
0.035059 -0.168451 6.420399 134 149 146
0.002549 0.200018 6.185023 92 98 84
0.001906 -0.081419 6.412440 85 89 75
0.066731 -0.196802 6.429747 135 156 151
-0.007422 0.136330 6.261170 112 113 97
-0.019191 0.082387 6.327508 168 182 165
0.057539 -0.171802 6.452554 89 101 91
0.019075 -0.072787 6.422715 89 94 71
0.030871 0.208797 6.188954 141 149 128
0.058551 0.243491 6.129602 140 146 118
0.037537 0.215548 6.181141 181 193 181
0.001305 0.008074 6.393474 89 99 75
0.015979 0.171047 6.246303 164 173 154
0.030263 -0.078830 6.438809 97 97 73
0.027627 -0.083096 6.449559 88 92 75
0.034083 -0.090007 6.451068 89 97 76
0.003150 0.141892 6.306782 135 135 107
0.066029 -0.151654 6.467386 92 100 87
0.005708 0.151289 6.307497 123 132 101
0.033078 0.194062 6.246810 132 142 108
0.033078 0.194062 6.246810 132 142 108
0.030522 -0.034256 6.435570 147 156 135
0.003404 0.130662 6.342364 142 153 136
0.037628 0.194334 6.255394 135 139 104
0.053578 0.209821 6.226425 138 143 111
0.015842 0.107592 6.360402 108 116 101
0.019232 0.075195 6.382504 106 114 90
0.020021 0.166449 6.308109 179 183 168
0.017961 0.095748 6.372831 119 121 100
0.017961 0.095748 6.372831 119 121 100
0.059863 -0.086017 6.472851 103 111 100
0.059863 -0.086017 6.472851 103 111 100
0.063681 -0.099636 6.487179 109 120 104
0.048013 0.208297 6.274210 142 147 115
0.060592 0.214344 6.258704 140 145 123
0.039481 0.129379 6.360452 120 125 103
0.044210 0.204131 6.346464 93 93 81
0.077293 -0.048508 6.512752 105 107 85
0.053148 0.160137 6.385952 109 109 83
0.055214 0.151273 6.391489 170 182 170
0.108571 -0.084236 6.529004 137 155 155
0.155036 -0.191355 6.576911 140 159 157
0.156679 -0.186688 6.572924 96 109 100
0.156679 -0.186688 6.572924 96 109 100
0.060758 0.142617 6.418877 151 161 126
0.072185 0.152380 6.416576 154 158 121
0.077421 0.185395 6.401676 130 135 112
0.134293 -0.107978 6.574466 138 154 153
0.086400 0.014481 6.539070 139 154 147
0.084657 0.059168 6.515344 93 104 90
0.165345 -0.166053 6.604205 87 92 88
0.097164 0.242604 6.353291 127 127 101
0.117269 -0.047702 6.568325 96 99 78
0.084419 0.131182 6.482588 125 132 116
0.129721 -0.044818 6.586664 91 99 88
0.100157 0.164895 6.461924 120 128 105
0.144920 -0.080709 6.623635 150 166 163
0.107088 0.191492 6.448611 175 187 167
0.106743 0.064061 6.559733 106 115 98
0.121139 0.005857 6.600190 94 101 94
0.165641 0.305212 6.308578 176 189 179
0.221820 -0.185344 6.646965 70 80 72
0.197178 -0.148036 6.648978 99 110 104
0.189599 0.316753 6.277553 149 157 142
0.109946 0.190592 6.477354 103 115 101
0.103148 0.148679 6.522195 91 95 80
0.121848 0.045448 6.587271 99 106 98
0.110405 0.129721 6.531977 112 118 92
0.173760 0.312113 6.309952 130 135 113
0.110885 0.136161 6.528299 165 177 153
0.176016 0.309318 6.312125 156 166 142
0.181803 -0.110140 6.649381 93 102 97
0.273453 0.349623 6.170216 130 142 122
0.263060 -0.223292 6.659008 122 140 140
0.152375 0.272969 6.380862 147 155 131
0.152375 0.272969 6.380862 147 155 131
0.181750 -0.104594 6.658457 138 157 153
0.213873 0.328605 6.275106 144 148 115
0.178028 -0.083286 6.660037 74 83 82
0.157788 0.268752 6.417712 186 193 177
0.158468 -0.002997 6.660125 142 154 152
0.210708 -0.097438 6.681262 132 148 147
0.240681 -0.138697 6.693344 70 76 66
0.189739 0.312404 6.382059 193 206 197
0.872137 0.259684 5.653311 10 27 105
0.247385 -0.148455 6.709126 109 124 121
0.197009 -0.064044 6.699956 86 95 92
0.163732 0.262346 6.472495 130 132 108
0.869715 0.258430 5.679245 121 135 120
0.188184 -0.038449 6.697783 141 158 152
0.876895 0.357468 5.597608 11 27 115
0.174547 0.267321 6.468043 151 155 138
0.152625 0.174960 6.594102 99 105 93
0.902056 0.375728 5.590246 18 35 125
0.167112 0.057881 6.678841 104 111 95
0.170560 0.249951 6.522634 131 135 110
0.162507 0.161147 6.606744 156 168 158
0.224443 0.336845 6.393271 160 169 150
0.158609 0.209741 6.577661 181 190 169
0.319511 0.380831 6.259121 148 154 126
0.166111 0.218937 6.564695 171 178 160
0.322260 -0.198627 6.743012 81 93 93
0.166862 0.186512 6.600597 127 135 122
0.231071 -0.072380 6.744012 141 161 168
0.173896 0.174884 6.604520 164 174 166
0.235378 0.337892 6.407681 154 165 151
0.290239 0.384002 6.310058 154 164 153
0.193906 0.296436 6.490456 133 140 124
0.237768 0.344604 6.403824 191 204 195
0.174560 0.186720 6.606500 168 176 165
0.258603 -0.097679 6.747641 134 152 154
0.245351 0.352123 6.393023 139 142 123
0.182357 0.235116 6.559732 109 116 100
0.182357 0.235116 6.559732 109 116 100
0.170030 0.215651 6.591816 179 192 175
0.170030 0.215651 6.591816 179 192 175
0.297909 0.384042 6.310642 178 194 183
0.177336 0.097836 6.682913 109 116 108
0.213647 0.296569 6.478680 125 132 116
0.227304 -0.045001 6.749127 69 73 72
0.180872 0.229385 6.576186 183 195 175
0.180318 0.223979 6.582422 176 185 164
0.180405 0.227670 6.579942 122 129 113
0.237802 -0.061495 6.756262 143 161 165
0.313177 0.383406 6.307000 139 148 121
0.281318 -0.126015 6.763183 81 90 87
0.281318 -0.126015 6.763183 81 90 87
0.235430 -0.051325 6.757975 96 110 110
0.309386 -0.154962 6.765375 79 89 88
0.255262 0.355904 6.404564 158 165 147
0.188806 0.229993 6.583476 118 125 107
0.263660 -0.078808 6.769512 95 106 102
0.353944 0.391536 6.286056 146 152 124
0.253916 -0.060479 6.776409 143 161 163
0.200593 0.266934 6.567581 105 109 86
0.209136 0.050073 6.748357 138 149 135
0.265746 -0.063873 6.785044 138 153 156
0.270888 -0.074192 6.788054 95 107 107
0.231345 0.012458 6.760946 132 150 150
0.200290 0.265034 6.586885 114 121 105
0.285072 -0.093875 6.789976 139 160 165
0.255791 0.343812 6.461343 132 137 115
0.266301 0.364491 6.434555 137 140 119
0.266301 0.364491 6.434555 137 140 119
0.215004 0.077322 6.730819 121 124 117
0.272111 -0.069446 6.788762 138 155 149
0.287103 0.373446 6.406227 150 155 132
0.217455 0.281947 6.564780 174 182 161
0.249749 0.340967 6.483117 144 150 124
0.216554 0.083589 6.733176 80 81 75
0.256470 -0.026388 6.784793 81 90 89
0.238730 0.326252 6.525624 134 139 119
0.280437 -0.061537 6.802901 134 154 153
0.229857 0.298331 6.561973 174 188 173
0.232319 0.299040 6.567247 144 153 132
0.289225 -0.059184 6.805083 81 93 89
0.286013 0.373010 6.454817 143 155 135
0.221139 0.286613 6.599796 131 140 123
0.217866 0.209893 6.669185 169 183 168
0.228056 0.129106 6.726716 88 96 83
0.300962 -0.066672 6.812397 72 83 87
0.298290 -0.060350 6.810093 124 140 140
0.221978 0.194746 6.684303 125 131 117
0.229219 0.292172 6.597461 134 143 126
0.220663 0.235730 6.658090 122 133 117
0.228122 0.160663 6.716148 91 101 93
0.228122 0.160663 6.716148 91 101 93
0.330291 -0.102745 6.825633 100 115 118
0.221448 0.216781 6.679798 92 98 86
0.265747 0.010485 6.802164 129 145 144
0.274092 -0.000796 6.808343 65 70 63
0.353190 -0.131709 6.832566 57 62 65
0.274612 0.005535 6.805431 122 136 136
0.229333 0.253894 6.657577 117 123 113
0.229333 0.253894 6.657577 117 123 113
0.388292 -0.173788 6.841307 132 159 170
0.979584 0.428849 5.706009 176 192 192
0.371272 -0.147854 6.843388 115 139 143
0.314083 -0.047166 6.824867 121 137 136
0.233263 0.255578 6.660899 173 185 173
0.356258 -0.110741 6.839622 75 88 79
0.272176 0.362326 6.538090 151 156 136
0.335485 -0.077636 6.836285 134 154 155
0.265152 0.168635 6.706971 96 108 98
0.314341 -0.019517 6.819550 130 148 152
0.374470 -0.126289 6.844805 71 81 80
0.242568 0.229814 6.690796 124 132 117
0.236793 0.257668 6.674161 126 131 127
0.325847 -0.033617 6.830084 90 101 93
0.326726 -0.039812 6.833703 126 141 144
0.374304 -0.111491 6.844924 136 159 167
0.247000 0.222759 6.703494 94 97 88
0.326886 -0.033758 6.835560 87 99 95
0.319081 0.411425 6.478915 139 144 114
0.361363 -0.088546 6.849685 77 86 83
0.293536 0.383425 6.532670 147 161 138
0.293536 0.383425 6.532670 147 161 138
0.307987 0.005196 6.832291 68 75 68
0.248953 0.259224 6.692833 122 130 119
0.290876 0.042825 6.827612 91 102 88
0.290876 0.042825 6.827612 91 102 88
0.318894 0.406970 6.504314 139 139 113
0.318894 0.406970 6.504314 139 139 113
0.387375 -0.108561 6.861760 90 105 102
0.388087 -0.101374 6.857403 134 154 153
0.339930 -0.033348 6.852373 138 156 158
0.273550 0.148608 6.773293 98 101 84
0.339787 -0.026621 6.850021 85 94 93
0.339787 -0.026621 6.850021 85 94 93
0.267293 0.279172 6.682533 174 188 173
0.267256 0.252822 6.705726 87 88 82
0.384330 -0.090674 6.868365 85 97 95
0.267361 0.297834 6.671161 174 188 173
0.337830 -0.010884 6.854190 85 98 91
0.269919 0.307605 6.663152 179 191 171
0.270305 0.265669 6.700984 144 157 137
0.276639 0.290896 6.673374 92 97 90
0.399750 -0.105484 6.873952 97 111 114
0.279996 0.335490 6.635927 177 190 173
0.296380 0.370892 6.589592 177 190 172
0.274853 0.291346 6.681019 177 187 179
0.399891 0.491060 6.383431 158 170 150
0.324783 0.026255 6.852324 85 94 91
0.298715 0.380954 6.584112 181 192 176
0.502777 0.522957 6.254769 154 164 140
0.316323 0.399053 6.556392 135 147 125
0.300780 0.365503 6.601821 182 195 185
0.294379 0.341966 6.628276 172 186 169
0.395713 -0.077474 6.875240 83 95 93
0.279878 0.296845 6.688718 162 176 153
0.316702 0.377025 6.584585 129 133 116
0.335425 0.413265 6.542593 185 198 180
0.335425 0.413265 6.542593 185 198 180
0.455669 -0.147643 6.888194 149 169 178
0.377568 -0.027330 6.879144 134 154 155
0.300787 0.302816 6.684162 112 123 109
0.439714 -0.116483 6.889458 58 64 62
0.439714 -0.116483 6.889458 58 64 62
0.422730 0.507822 6.387779 153 163 138
0.301863 0.334235 6.670148 178 192 177
0.309667 0.322402 6.676202 121 132 118
0.385795 -0.020155 6.886570 123 142 140
0.494686 -0.167470 6.895867 128 148 149
0.475041 -0.142071 6.898825 113 135 146
0.298498 0.234459 6.770062 168 181 161
0.497008 -0.164718 6.898281 69 84 89
0.394281 -0.018998 6.886497 69 78 75
0.394281 -0.018998 6.886497 69 78 75
0.355503 0.440681 6.545184 143 156 130
0.319066 0.377191 6.647887 146 156 145
0.319066 0.377191 6.647887 146 156 145
0.368193 0.450865 6.535951 158 167 146
0.382388 0.474985 6.501604 188 203 184
0.307521 0.286124 6.744647 112 118 114
0.434250 -0.036805 6.905247 86 97 93
0.318893 0.304131 6.740089 97 102 95
0.342649 0.395748 6.642571 145 154 133
0.325362 0.310317 6.743775 135 145 136
0.442184 -0.040698 6.917267 76 87 79
0.338123 0.381107 6.671929 182 194 184
0.338123 0.381107 6.671929 182 194 184
0.325316 0.261167 6.791744 123 131 118
0.333962 0.217121 6.826347 95 103 88
0.361003 0.119731 6.890343 137 148 132
0.338961 0.249031 6.806023 166 174 151
0.358487 0.418084 6.646682 185 198 188
0.337399 0.314204 6.758679 121 128 112
0.608959 -0.188972 6.905200 109 133 143
0.389037 0.461550 6.584088 142 150 139
0.340252 0.273569 6.793214 98 106 95
0.427174 0.493932 6.519236 149 158 139
0.418767 0.022766 6.923398 102 121 119
0.418767 0.022766 6.923398 102 121 119
0.396737 0.475413 6.571635 156 167 151
0.396737 0.475413 6.571635 156 167 151
0.452098 -0.020334 6.932747 75 85 86
0.368480 0.429698 6.645561 187 200 190
0.505841 -0.081605 6.942394 114 132 132
0.403684 0.475285 6.581338 142 153 139
0.386301 0.445383 6.629770 140 151 137
0.363242 0.354032 6.746228 164 176 154
0.364466 0.371756 6.735814 137 145 134
0.358093 0.316522 6.792585 121 127 123
0.385230 0.424468 6.687617 136 144 131
0.385230 0.424468 6.687617 136 144 131
0.385847 0.420186 6.698161 146 157 141
0.375795 0.335584 6.782779 182 195 175
0.375795 0.335584 6.782779 182 195 175
0.473426 0.523325 6.534631 154 165 151
0.429618 0.479691 6.618397 149 160 152
0.396005 0.287784 6.816094 163 179 169
0.397708 0.228488 6.869375 112 121 116
0.404893 0.200141 6.886700 106 112 108
0.392427 0.309369 6.811507 111 122 118
0.392427 0.309369 6.811507 111 122 118
0.399655 0.246471 6.858017 106 112 110
0.415353 0.432965 6.697105 132 142 131
0.415353 0.432965 6.697105 132 142 131
0.399801 0.320671 6.810800 116 126 125
0.410242 0.254832 6.858666 157 173 160
0.407476 0.392596 6.751866 122 132 121
0.407476 0.392596 6.751866 122 132 121
0.415836 0.361527 6.779241 186 197 189
0.416586 0.280064 6.847524 96 104 91
0.417810 0.316387 6.819445 93 95 92
0.417810 0.316387 6.819445 93 95 92
0.533114 0.011961 6.975390 76 80 81
0.468867 0.492308 6.639433 117 126 109
0.424546 0.338059 6.818273 158 169 163
0.426310 0.352552 6.806638 172 187 180
0.426310 0.352552 6.806638 172 187 180
0.540645 0.019638 6.980882 109 128 126
0.515391 0.523314 6.580587 189 200 194
0.515391 0.523314 6.580587 189 200 194
0.456025 0.435487 6.724580 121 131 122
0.443071 0.313976 6.842688 102 112 103
0.447496 0.353400 6.809722 111 122 114
0.444088 0.352636 6.815822 159 172 165
0.453133 0.241054 6.904482 98 109 105
0.448857 0.323723 6.849390 117 129 125
0.462020 0.298100 6.861852 123 131 118
0.548906 0.053576 6.990669 82 87 83
0.455767 0.349965 6.834853 165 178 168
0.482636 0.414036 6.757555 130 141 127
0.482636 0.414036 6.757555 130 141 127
0.463894 0.377185 6.807913 138 149 141
0.463894 0.377185 6.807913 138 149 141
0.470637 0.245306 6.913615 161 171 160
0.478972 0.294183 6.868989 131 139 128
0.478972 0.294183 6.868989 131 139 128
0.486999 0.427462 6.756023 131 143 129
0.639331 0.599420 6.465886 151 161 152
0.474793 0.343584 6.845112 100 109 104
0.543938 0.539794 6.627486 139 152 145
0.514659 0.450712 6.733123 147 157 148
0.490526 0.354498 6.842763 88 99 95
0.504493 0.301372 6.891997 165 176 160
0.521218 0.436374 6.761953 143 153 142
0.513906 0.346514 6.849557 95 105 104
0.529754 0.346538 6.851363 165 180 173
0.676585 0.588300 6.516671 146 157 149
0.527412 0.315963 6.894215 126 132 120
0.555850 0.352308 6.859961 134 140 138
0.536355 0.258153 6.965043 110 116 106
0.689121 0.591872 6.538722 151 163 149
0.542637 0.292467 6.959902 105 111 99
0.542637 0.292467 6.959902 105 111 99
0.607120 0.445071 6.769336 142 150 135
0.633847 0.498751 6.699068 137 148 140
0.795812 0.598211 6.463500 151 166 159
0.651479 0.519980 6.684258 178 193 186
0.622798 0.426292 6.794850 151 160 141
0.685860 0.556036 6.634245 136 152 141
0.779948 0.542880 6.598651 163 180 170
0.761232 0.522495 6.642968 167 184 176
0.781070 0.534919 6.625538 21 36 103
0.577771 0.364446 6.977102 156 163 145
0.734520 0.550116 6.700584 15 35 122
0.618370 0.354078 7.013703 150 164 164
0.618370 0.354078 7.013703 150 164 164
0.621571 0.382458 7.007018 107 121 122
0.662108 0.431798 6.972054 90 107 117
0.662108 0.431798 6.972054 90 107 117
-0.842148 -0.354026 5.469222 26 45 121
-1.223492 0.234844 5.812893 149 165 164
-1.004663 0.027247 5.983904 153 162 141
-0.618907 -0.589383 5.809261 124 143 141
-0.830379 0.012397 5.644828 111 115 82
-0.813518 -0.070038 5.760401 148 161 141
-0.659611 0.054555 5.844436 114 118 91
-0.651351 0.052472 5.849498 173 184 170
-0.581220 0.147086 5.786592 182 196 183
-0.573084 0.141383 5.844431 137 146 117
-0.543730 0.105941 5.911892 126 135 114
-0.497764 0.094287 5.945529 113 122 103
-0.490761 0.150257 5.883205 136 144 131
-0.481128 0.014093 6.009033 143 154 137
-0.148613 0.106088 5.384241 27 46 140
-0.387133 0.125762 5.939649 180 195 172
-0.382915 0.120717 5.962175 137 146 119
-0.381389 0.109540 5.980797 133 140 124
-0.353284 0.151694 5.920404 111 116 93
-0.249398 -0.174643 6.144540 96 108 104
-0.259705 0.154363 5.962593 159 172 162
-0.212380 -0.082648 6.172718 99 103 78
-0.129387 -0.242916 6.207966 85 92 76
-0.129387 -0.242916 6.207966 85 92 76
-0.162498 -0.106211 6.217183 84 90 76
-0.193321 0.100063 6.078552 155 168 142
-0.115550 0.244019 5.847595 163 172 143
-0.148978 0.147058 6.047995 136 143 109
-0.111852 0.180026 6.008779 137 144 111
-0.040284 0.242485 5.858451 154 165 148
-0.109532 0.166050 6.047461 108 113 90
-0.114686 0.120748 6.133492 124 128 103
-0.114686 0.120748 6.133492 124 128 103
-0.110033 0.117471 6.134905 180 189 172
-0.104149 0.130748 6.113982 111 113 91
-0.074604 0.114546 6.212752 137 140 121
-0.016375 -0.107462 6.368435 113 120 102
-0.041105 0.193602 6.112082 168 181 163
-0.021976 0.128665 6.254031 176 180 157
-0.013160 0.128373 6.257264 158 166 145
0.020379 0.237251 6.094994 164 169 149
0.038951 0.235688 6.126203 146 156 132
0.041822 -0.045902 6.455303 106 109 80
0.053617 -0.081452 6.477348 103 111 100
0.053617 -0.081452 6.477348 103 111 100
0.147638 0.285045 5.972399 149 162 132
0.030347 0.187007 6.259283 145 148 119
0.070001 -0.077303 6.495724 93 95 73
0.045797 0.214125 6.231324 138 143 111
0.058355 -0.031146 6.485014 145 155 146
0.069147 0.230669 6.261112 137 148 118
0.095770 -0.050175 6.548047 143 158 151
0.062498 0.171229 6.383319 103 105 81
0.097243 0.242329 6.352974 127 127 101
0.100154 0.175075 6.453484 123 129 103
0.129539 0.264779 6.346505 182 198 188
0.130490 0.233883 6.403011 175 183 160
0.130490 0.233883 6.403011 175 183 160
0.130069 0.238663 6.407082 129 133 108
0.155504 0.019616 6.653045 139 148 143
0.174970 0.291865 6.348924 140 146 118
0.174970 0.291865 6.348924 140 146 118
0.196121 0.317854 6.302405 112 112 86
0.147962 0.221845 6.540034 162 175 155
0.197631 0.051716 6.737405 138 148 137
0.269920 0.367250 6.318732 139 150 134
0.212367 0.305639 6.486997 150 162 142
0.312066 -0.101616 6.822839 69 83 84
0.210469 0.262166 6.586736 176 188 168
0.237239 0.319792 6.523694 174 187 169
0.277143 0.352745 6.609569 141 150 131
0.277143 0.352745 6.609569 141 150 131
0.287996 0.362186 6.592442 194 207 190
0.285117 0.295323 6.693139 98 97 79
0.303566 0.383176 6.571903 143 151 130
0.385269 0.463259 6.585978 142 150 139
0.369520 0.406567 6.692286 143 153 129
0.404019 0.435788 6.681181 145 155 146
0.449062 0.491426 6.614430 188 201 194
